515
      -6.34500000   -6.34500000  -27.49500000
      -6.34500000   -6.34500000  -23.26500000
      -6.34500000   -6.34500000  -19.03500000
      -6.34500000   -6.34500000  -14.80500000
      -6.34500000   -6.34500000  -10.57500000
      -6.34500000   -6.34500000   -6.34500000
      -6.34500000   -6.34500000   -2.11500000
      -6.34500000   -6.34500000    2.11500000
      -6.34500000   -6.34500000    6.34500000
      -6.34500000   -6.34500000   10.57500000
      -6.34500000   -6.34500000   14.80500000
      -6.34500000   -6.34500000   19.03500000
      -6.34500000   -6.34500000   23.26500000
      -6.34500000   -6.34500000   27.49500000
      -6.34500000   -2.11500000  -27.49500000
      -8.46000000   -4.23000000  -25.38000000
      -6.34500000   -2.11500000  -23.26500000
      -8.46000000   -4.23000000  -21.15000000
      -6.34500000   -2.11500000  -19.03500000
      -8.46000000   -4.23000000  -16.92000000
      -6.34500000   -2.11500000  -14.80500000
      -8.46000000   -4.23000000  -12.69000000
      -6.34500000   -2.11500000  -10.57500000
      -8.46000000   -4.23000000   -8.46000000
      -6.34500000   -2.11500000   -6.34500000
      -8.46000000   -4.23000000   -4.23000000
      -6.34500000   -2.11500000   -2.11500000
      -8.46000000   -4.23000000    0.00000000
      -6.34500000   -2.11500000    2.11500000
      -8.46000000   -4.23000000    4.23000000
      -6.34500000   -2.11500000    6.34500000
      -8.46000000   -4.23000000    8.46000000
      -6.34500000   -2.11500000   10.57500000
      -8.46000000   -4.23000000   12.69000000
      -6.34500000   -2.11500000   14.80500000
      -8.46000000   -4.23000000   16.92000000
      -6.34500000   -2.11500000   19.03500000
      -8.46000000   -4.23000000   21.15000000
      -6.34500000   -2.11500000   23.26500000
      -8.46000000   -4.23000000   25.38000000
      -6.34500000   -2.11500000   27.49500000
      -6.34500000    2.11500000  -27.49500000
      -8.46000000    0.00000000  -25.38000000
      -6.34500000    2.11500000  -23.26500000
      -8.46000000    0.00000000  -21.15000000
      -6.34500000    2.11500000  -19.03500000
      -8.46000000    0.00000000  -16.92000000
      -6.34500000    2.11500000  -14.80500000
      -8.46000000    0.00000000  -12.69000000
      -6.34500000    2.11500000  -10.57500000
      -8.46000000    0.00000000   -8.46000000
      -6.34500000    2.11500000   -6.34500000
      -8.46000000    0.00000000   -4.23000000
      -6.34500000    2.11500000   -2.11500000
      -8.46000000    0.00000000    0.00000000
      -6.34500000    2.11500000    2.11500000
      -8.46000000    0.00000000    4.23000000
      -6.34500000    2.11500000    6.34500000
      -8.46000000    0.00000000    8.46000000
      -6.34500000    2.11500000   10.57500000
      -8.46000000    0.00000000   12.69000000
      -6.34500000    2.11500000   14.80500000
      -8.46000000    0.00000000   16.92000000
      -6.34500000    2.11500000   19.03500000
      -8.46000000    0.00000000   21.15000000
      -6.34500000    2.11500000   23.26500000
      -8.46000000    0.00000000   25.38000000
      -6.34500000    2.11500000   27.49500000
      -6.34500000    6.34500000  -27.49500000
      -8.46000000    4.23000000  -25.38000000
      -6.34500000    6.34500000  -23.26500000
      -8.46000000    4.23000000  -21.15000000
      -6.34500000    6.34500000  -19.03500000
      -8.46000000    4.23000000  -16.92000000
      -6.34500000    6.34500000  -14.80500000
      -8.46000000    4.23000000  -12.69000000
      -6.34500000    6.34500000  -10.57500000
      -8.46000000    4.23000000   -8.46000000
      -6.34500000    6.34500000   -6.34500000
      -8.46000000    4.23000000   -4.23000000
      -6.34500000    6.34500000   -2.11500000
      -8.46000000    4.23000000    0.00000000
      -6.34500000    6.34500000    2.11500000
      -8.46000000    4.23000000    4.23000000
      -6.34500000    6.34500000    6.34500000
      -8.46000000    4.23000000    8.46000000
      -6.34500000    6.34500000   10.57500000
      -8.46000000    4.23000000   12.69000000
      -6.34500000    6.34500000   14.80500000
      -8.46000000    4.23000000   16.92000000
      -6.34500000    6.34500000   19.03500000
      -8.46000000    4.23000000   21.15000000
      -6.34500000    6.34500000   23.26500000
      -8.46000000    4.23000000   25.38000000
      -6.34500000    6.34500000   27.49500000
      -2.11500000   -6.34500000  -27.49500000
      -4.23000000   -8.46000000  -25.38000000
      -2.11500000   -6.34500000  -23.26500000
      -4.23000000   -8.46000000  -21.15000000
      -2.11500000   -6.34500000  -19.03500000
      -4.23000000   -8.46000000  -16.92000000
      -2.11500000   -6.34500000  -14.80500000
      -4.23000000   -8.46000000  -12.69000000
      -2.11500000   -6.34500000  -10.57500000
      -4.23000000   -8.46000000   -8.46000000
      -2.11500000   -6.34500000   -6.34500000
      -4.23000000   -8.46000000   -4.23000000
      -2.11500000   -6.34500000   -2.11500000
      -4.23000000   -8.46000000    0.00000000
      -2.11500000   -6.34500000    2.11500000
      -4.23000000   -8.46000000    4.23000000
      -2.11500000   -6.34500000    6.34500000
      -4.23000000   -8.46000000    8.46000000
      -2.11500000   -6.34500000   10.57500000
      -4.23000000   -8.46000000   12.69000000
      -2.11500000   -6.34500000   14.80500000
      -4.23000000   -8.46000000   16.92000000
      -2.11500000   -6.34500000   19.03500000
      -4.23000000   -8.46000000   21.15000000
      -2.11500000   -6.34500000   23.26500000
      -4.23000000   -8.46000000   25.38000000
      -2.11500000   -6.34500000   27.49500000
      -4.23000000   -4.23000000  -29.61000000
      -2.11500000   -2.11500000  -27.49500000
      -4.23000000   -4.23000000  -25.38000000
      -2.11500000   -2.11500000  -23.26500000
      -4.23000000   -4.23000000  -21.15000000
      -2.11500000   -2.11500000  -19.03500000
      -4.23000000   -4.23000000  -16.92000000
      -2.11500000   -2.11500000  -14.80500000
      -4.23000000   -4.23000000  -12.69000000
      -2.11500000   -2.11500000  -10.57500000
      -4.23000000   -4.23000000   -8.46000000
      -2.11500000   -2.11500000   -6.34500000
      -4.23000000   -4.23000000   -4.23000000
      -2.11500000   -2.11500000   -2.11500000
      -4.23000000   -4.23000000    0.00000000
      -2.11500000   -2.11500000    2.11500000
      -4.23000000   -4.23000000    4.23000000
      -2.11500000   -2.11500000    6.34500000
      -4.23000000   -4.23000000    8.46000000
      -2.11500000   -2.11500000   10.57500000
      -4.23000000   -4.23000000   12.69000000
      -2.11500000   -2.11500000   14.80500000
      -4.23000000   -4.23000000   16.92000000
      -2.11500000   -2.11500000   19.03500000
      -4.23000000   -4.23000000   21.15000000
      -2.11500000   -2.11500000   23.26500000
      -4.23000000   -4.23000000   25.38000000
      -2.11500000   -2.11500000   27.49500000
      -4.23000000   -4.23000000   29.61000000
      -4.23000000    0.00000000  -29.61000000
      -2.11500000    2.11500000  -27.49500000
      -4.23000000    0.00000000  -25.38000000
      -2.11500000    2.11500000  -23.26500000
      -4.23000000    0.00000000  -21.15000000
      -2.11500000    2.11500000  -19.03500000
      -4.23000000    0.00000000  -16.92000000
      -2.11500000    2.11500000  -14.80500000
      -4.23000000    0.00000000  -12.69000000
      -2.11500000    2.11500000  -10.57500000
      -4.23000000    0.00000000   -8.46000000
      -2.11500000    2.11500000   -6.34500000
      -4.23000000    0.00000000   -4.23000000
      -2.11500000    2.11500000   -2.11500000
      -4.23000000    0.00000000    0.00000000
      -2.11500000    2.11500000    2.11500000
      -4.23000000    0.00000000    4.23000000
      -2.11500000    2.11500000    6.34500000
      -4.23000000    0.00000000    8.46000000
      -2.11500000    2.11500000   10.57500000
      -4.23000000    0.00000000   12.69000000
      -2.11500000    2.11500000   14.80500000
      -4.23000000    0.00000000   16.92000000
      -2.11500000    2.11500000   19.03500000
      -4.23000000    0.00000000   21.15000000
      -2.11500000    2.11500000   23.26500000
      -4.23000000    0.00000000   25.38000000
      -2.11500000    2.11500000   27.49500000
      -4.23000000    0.00000000   29.61000000
      -4.23000000    4.23000000  -29.61000000
      -2.11500000    6.34500000  -27.49500000
      -4.23000000    4.23000000  -25.38000000
      -2.11500000    6.34500000  -23.26500000
      -4.23000000    4.23000000  -21.15000000
      -2.11500000    6.34500000  -19.03500000
      -4.23000000    4.23000000  -16.92000000
      -2.11500000    6.34500000  -14.80500000
      -4.23000000    4.23000000  -12.69000000
      -2.11500000    6.34500000  -10.57500000
      -4.23000000    4.23000000   -8.46000000
      -2.11500000    6.34500000   -6.34500000
      -4.23000000    4.23000000   -4.23000000
      -2.11500000    6.34500000   -2.11500000
      -4.23000000    4.23000000    0.00000000
      -2.11500000    6.34500000    2.11500000
      -4.23000000    4.23000000    4.23000000
      -2.11500000    6.34500000    6.34500000
      -4.23000000    4.23000000    8.46000000
      -2.11500000    6.34500000   10.57500000
      -4.23000000    4.23000000   12.69000000
      -2.11500000    6.34500000   14.80500000
      -4.23000000    4.23000000   16.92000000
      -2.11500000    6.34500000   19.03500000
      -4.23000000    4.23000000   21.15000000
      -2.11500000    6.34500000   23.26500000
      -4.23000000    4.23000000   25.38000000
      -2.11500000    6.34500000   27.49500000
      -4.23000000    4.23000000   29.61000000
      -4.23000000    8.46000000  -25.38000000
      -4.23000000    8.46000000  -21.15000000
      -4.23000000    8.46000000  -16.92000000
      -4.23000000    8.46000000  -12.69000000
      -4.23000000    8.46000000   -8.46000000
      -4.23000000    8.46000000   -4.23000000
      -4.23000000    8.46000000    0.00000000
      -4.23000000    8.46000000    4.23000000
      -4.23000000    8.46000000    8.46000000
      -4.23000000    8.46000000   12.69000000
      -4.23000000    8.46000000   16.92000000
      -4.23000000    8.46000000   21.15000000
      -4.23000000    8.46000000   25.38000000
       2.11500000   -6.34500000  -27.49500000
       0.00000000   -8.46000000  -25.38000000
       2.11500000   -6.34500000  -23.26500000
       0.00000000   -8.46000000  -21.15000000
       2.11500000   -6.34500000  -19.03500000
       0.00000000   -8.46000000  -16.92000000
       2.11500000   -6.34500000  -14.80500000
       0.00000000   -8.46000000  -12.69000000
       2.11500000   -6.34500000  -10.57500000
       0.00000000   -8.46000000   -8.46000000
       2.11500000   -6.34500000   -6.34500000
       0.00000000   -8.46000000   -4.23000000
       2.11500000   -6.34500000   -2.11500000
       0.00000000   -8.46000000    0.00000000
       2.11500000   -6.34500000    2.11500000
       0.00000000   -8.46000000    4.23000000
       2.11500000   -6.34500000    6.34500000
       0.00000000   -8.46000000    8.46000000
       2.11500000   -6.34500000   10.57500000
       0.00000000   -8.46000000   12.69000000
       2.11500000   -6.34500000   14.80500000
       0.00000000   -8.46000000   16.92000000
       2.11500000   -6.34500000   19.03500000
       0.00000000   -8.46000000   21.15000000
       2.11500000   -6.34500000   23.26500000
       0.00000000   -8.46000000   25.38000000
       2.11500000   -6.34500000   27.49500000
       0.00000000   -4.23000000  -29.61000000
       2.11500000   -2.11500000  -27.49500000
       0.00000000   -4.23000000  -25.38000000
       2.11500000   -2.11500000  -23.26500000
       0.00000000   -4.23000000  -21.15000000
       2.11500000   -2.11500000  -19.03500000
       0.00000000   -4.23000000  -16.92000000
       2.11500000   -2.11500000  -14.80500000
       0.00000000   -4.23000000  -12.69000000
       2.11500000   -2.11500000  -10.57500000
       0.00000000   -4.23000000   -8.46000000
       2.11500000   -2.11500000   -6.34500000
       0.00000000   -4.23000000   -4.23000000
       2.11500000   -2.11500000   -2.11500000
       0.00000000   -4.23000000    0.00000000
       2.11500000   -2.11500000    2.11500000
       0.00000000   -4.23000000    4.23000000
       2.11500000   -2.11500000    6.34500000
       0.00000000   -4.23000000    8.46000000
       2.11500000   -2.11500000   10.57500000
       0.00000000   -4.23000000   12.69000000
       2.11500000   -2.11500000   14.80500000
       0.00000000   -4.23000000   16.92000000
       2.11500000   -2.11500000   19.03500000
       0.00000000   -4.23000000   21.15000000
       2.11500000   -2.11500000   23.26500000
       0.00000000   -4.23000000   25.38000000
       2.11500000   -2.11500000   27.49500000
       0.00000000   -4.23000000   29.61000000
       0.00000000    0.00000000  -29.61000000
       2.11500000    2.11500000  -27.49500000
       0.00000000    0.00000000  -25.38000000
       2.11500000    2.11500000  -23.26500000
       0.00000000    0.00000000  -21.15000000
       2.11500000    2.11500000  -19.03500000
       0.00000000    0.00000000  -16.92000000
       2.11500000    2.11500000  -14.80500000
       0.00000000    0.00000000  -12.69000000
       2.11500000    2.11500000  -10.57500000
       0.00000000    0.00000000   -8.46000000
       2.11500000    2.11500000   -6.34500000
       0.00000000    0.00000000   -4.23000000
       2.11500000    2.11500000   -2.11500000
       0.00000000    0.00000000    0.00000000
       2.11500000    2.11500000    2.11500000
       0.00000000    0.00000000    4.23000000
       2.11500000    2.11500000    6.34500000
       0.00000000    0.00000000    8.46000000
       2.11500000    2.11500000   10.57500000
       0.00000000    0.00000000   12.69000000
       2.11500000    2.11500000   14.80500000
       0.00000000    0.00000000   16.92000000
       2.11500000    2.11500000   19.03500000
       0.00000000    0.00000000   21.15000000
       2.11500000    2.11500000   23.26500000
       0.00000000    0.00000000   25.38000000
       2.11500000    2.11500000   27.49500000
       0.00000000    0.00000000   29.61000000
       0.00000000    4.23000000  -29.61000000
       2.11500000    6.34500000  -27.49500000
       0.00000000    4.23000000  -25.38000000
       2.11500000    6.34500000  -23.26500000
       0.00000000    4.23000000  -21.15000000
       2.11500000    6.34500000  -19.03500000
       0.00000000    4.23000000  -16.92000000
       2.11500000    6.34500000  -14.80500000
       0.00000000    4.23000000  -12.69000000
       2.11500000    6.34500000  -10.57500000
       0.00000000    4.23000000   -8.46000000
       2.11500000    6.34500000   -6.34500000
       0.00000000    4.23000000   -4.23000000
       2.11500000    6.34500000   -2.11500000
       0.00000000    4.23000000    0.00000000
       2.11500000    6.34500000    2.11500000
       0.00000000    4.23000000    4.23000000
       2.11500000    6.34500000    6.34500000
       0.00000000    4.23000000    8.46000000
       2.11500000    6.34500000   10.57500000
       0.00000000    4.23000000   12.69000000
       2.11500000    6.34500000   14.80500000
       0.00000000    4.23000000   16.92000000
       2.11500000    6.34500000   19.03500000
       0.00000000    4.23000000   21.15000000
       2.11500000    6.34500000   23.26500000
       0.00000000    4.23000000   25.38000000
       2.11500000    6.34500000   27.49500000
       0.00000000    4.23000000   29.61000000
       0.00000000    8.46000000  -25.38000000
       0.00000000    8.46000000  -21.15000000
       0.00000000    8.46000000  -16.92000000
       0.00000000    8.46000000  -12.69000000
       0.00000000    8.46000000   -8.46000000
       0.00000000    8.46000000   -4.23000000
       0.00000000    8.46000000    0.00000000
       0.00000000    8.46000000    4.23000000
       0.00000000    8.46000000    8.46000000
       0.00000000    8.46000000   12.69000000
       0.00000000    8.46000000   16.92000000
       0.00000000    8.46000000   21.15000000
       0.00000000    8.46000000   25.38000000
       6.34500000   -6.34500000  -27.49500000
       4.23000000   -8.46000000  -25.38000000
       6.34500000   -6.34500000  -23.26500000
       4.23000000   -8.46000000  -21.15000000
       6.34500000   -6.34500000  -19.03500000
       4.23000000   -8.46000000  -16.92000000
       6.34500000   -6.34500000  -14.80500000
       4.23000000   -8.46000000  -12.69000000
       6.34500000   -6.34500000  -10.57500000
       4.23000000   -8.46000000   -8.46000000
       6.34500000   -6.34500000   -6.34500000
       4.23000000   -8.46000000   -4.23000000
       6.34500000   -6.34500000   -2.11500000
       4.23000000   -8.46000000    0.00000000
       6.34500000   -6.34500000    2.11500000
       4.23000000   -8.46000000    4.23000000
       6.34500000   -6.34500000    6.34500000
       4.23000000   -8.46000000    8.46000000
       6.34500000   -6.34500000   10.57500000
       4.23000000   -8.46000000   12.69000000
       6.34500000   -6.34500000   14.80500000
       4.23000000   -8.46000000   16.92000000
       6.34500000   -6.34500000   19.03500000
       4.23000000   -8.46000000   21.15000000
       6.34500000   -6.34500000   23.26500000
       4.23000000   -8.46000000   25.38000000
       6.34500000   -6.34500000   27.49500000
       4.23000000   -4.23000000  -29.61000000
       6.34500000   -2.11500000  -27.49500000
       4.23000000   -4.23000000  -25.38000000
       6.34500000   -2.11500000  -23.26500000
       4.23000000   -4.23000000  -21.15000000
       6.34500000   -2.11500000  -19.03500000
       4.23000000   -4.23000000  -16.92000000
       6.34500000   -2.11500000  -14.80500000
       4.23000000   -4.23000000  -12.69000000
       6.34500000   -2.11500000  -10.57500000
       4.23000000   -4.23000000   -8.46000000
       6.34500000   -2.11500000   -6.34500000
       4.23000000   -4.23000000   -4.23000000
       6.34500000   -2.11500000   -2.11500000
       4.23000000   -4.23000000    0.00000000
       6.34500000   -2.11500000    2.11500000
       4.23000000   -4.23000000    4.23000000
       6.34500000   -2.11500000    6.34500000
       4.23000000   -4.23000000    8.46000000
       6.34500000   -2.11500000   10.57500000
       4.23000000   -4.23000000   12.69000000
       6.34500000   -2.11500000   14.80500000
       4.23000000   -4.23000000   16.92000000
       6.34500000   -2.11500000   19.03500000
       4.23000000   -4.23000000   21.15000000
       6.34500000   -2.11500000   23.26500000
       4.23000000   -4.23000000   25.38000000
       6.34500000   -2.11500000   27.49500000
       4.23000000   -4.23000000   29.61000000
       4.23000000    0.00000000  -29.61000000
       6.34500000    2.11500000  -27.49500000
       4.23000000    0.00000000  -25.38000000
       6.34500000    2.11500000  -23.26500000
       4.23000000    0.00000000  -21.15000000
       6.34500000    2.11500000  -19.03500000
       4.23000000    0.00000000  -16.92000000
       6.34500000    2.11500000  -14.80500000
       4.23000000    0.00000000  -12.69000000
       6.34500000    2.11500000  -10.57500000
       4.23000000    0.00000000   -8.46000000
       6.34500000    2.11500000   -6.34500000
       4.23000000    0.00000000   -4.23000000
       6.34500000    2.11500000   -2.11500000
       4.23000000    0.00000000    0.00000000
       6.34500000    2.11500000    2.11500000
       4.23000000    0.00000000    4.23000000
       6.34500000    2.11500000    6.34500000
       4.23000000    0.00000000    8.46000000
       6.34500000    2.11500000   10.57500000
       4.23000000    0.00000000   12.69000000
       6.34500000    2.11500000   14.80500000
       4.23000000    0.00000000   16.92000000
       6.34500000    2.11500000   19.03500000
       4.23000000    0.00000000   21.15000000
       6.34500000    2.11500000   23.26500000
       4.23000000    0.00000000   25.38000000
       6.34500000    2.11500000   27.49500000
       4.23000000    0.00000000   29.61000000
       4.23000000    4.23000000  -29.61000000
       6.34500000    6.34500000  -27.49500000
       4.23000000    4.23000000  -25.38000000
       6.34500000    6.34500000  -23.26500000
       4.23000000    4.23000000  -21.15000000
       6.34500000    6.34500000  -19.03500000
       4.23000000    4.23000000  -16.92000000
       6.34500000    6.34500000  -14.80500000
       4.23000000    4.23000000  -12.69000000
       6.34500000    6.34500000  -10.57500000
       4.23000000    4.23000000   -8.46000000
       6.34500000    6.34500000   -6.34500000
       4.23000000    4.23000000   -4.23000000
       6.34500000    6.34500000   -2.11500000
       4.23000000    4.23000000    0.00000000
       6.34500000    6.34500000    2.11500000
       4.23000000    4.23000000    4.23000000
       6.34500000    6.34500000    6.34500000
       4.23000000    4.23000000    8.46000000
       6.34500000    6.34500000   10.57500000
       4.23000000    4.23000000   12.69000000
       6.34500000    6.34500000   14.80500000
       4.23000000    4.23000000   16.92000000
       6.34500000    6.34500000   19.03500000
       4.23000000    4.23000000   21.15000000
       6.34500000    6.34500000   23.26500000
       4.23000000    4.23000000   25.38000000
       6.34500000    6.34500000   27.49500000
       4.23000000    4.23000000   29.61000000
       4.23000000    8.46000000  -25.38000000
       4.23000000    8.46000000  -21.15000000
       4.23000000    8.46000000  -16.92000000
       4.23000000    8.46000000  -12.69000000
       4.23000000    8.46000000   -8.46000000
       4.23000000    8.46000000   -4.23000000
       4.23000000    8.46000000    0.00000000
       4.23000000    8.46000000    4.23000000
       4.23000000    8.46000000    8.46000000
       4.23000000    8.46000000   12.69000000
       4.23000000    8.46000000   16.92000000
       4.23000000    8.46000000   21.15000000
       4.23000000    8.46000000   25.38000000
       8.46000000   -4.23000000  -25.38000000
       8.46000000   -4.23000000  -21.15000000
       8.46000000   -4.23000000  -16.92000000
       8.46000000   -4.23000000  -12.69000000
       8.46000000   -4.23000000   -8.46000000
       8.46000000   -4.23000000   -4.23000000
       8.46000000   -4.23000000    0.00000000
       8.46000000   -4.23000000    4.23000000
       8.46000000   -4.23000000    8.46000000
       8.46000000   -4.23000000   12.69000000
       8.46000000   -4.23000000   16.92000000
       8.46000000   -4.23000000   21.15000000
       8.46000000   -4.23000000   25.38000000
       8.46000000    0.00000000  -25.38000000
       8.46000000    0.00000000  -21.15000000
       8.46000000    0.00000000  -16.92000000
       8.46000000    0.00000000  -12.69000000
       8.46000000    0.00000000   -8.46000000
       8.46000000    0.00000000   -4.23000000
       8.46000000    0.00000000    0.00000000
       8.46000000    0.00000000    4.23000000
       8.46000000    0.00000000    8.46000000
       8.46000000    0.00000000   12.69000000
       8.46000000    0.00000000   16.92000000
       8.46000000    0.00000000   21.15000000
       8.46000000    0.00000000   25.38000000
       8.46000000    4.23000000  -25.38000000
       8.46000000    4.23000000  -21.15000000
       8.46000000    4.23000000  -16.92000000
       8.46000000    4.23000000  -12.69000000
       8.46000000    4.23000000   -8.46000000
       8.46000000    4.23000000   -4.23000000
       8.46000000    4.23000000    0.00000000
       8.46000000    4.23000000    4.23000000
       8.46000000    4.23000000    8.46000000
       8.46000000    4.23000000   12.69000000
       8.46000000    4.23000000   16.92000000
       8.46000000    4.23000000   21.15000000
       8.46000000    4.23000000   25.38000000
1e-4 0. 0. 1.
0.415
1.0 3.0 201
0.1 80000
0.6  0.14  0.
